# .PCD v0.7 - Point Cloud Data file format
VERSION 0.7
FIELDS x y z intensity t reflectivity ring ambient range
SIZE 4 4 4 4 4 2 1 2 4
TYPE F F F F U U U U U
COUNT 1 1 1 1 1 1 1 1 1
WIDTH 855
HEIGHT 1
VIEWPOINT 0 0 0 1 0 0 0
POINTS 855
DATA ascii
-40.446804 -17.646822 4.7586932 103 47157460 6658 19 323 6658
-40.484409 -17.074961 4.7382569 127 47255100 52802 19 262 52802
-40.3465 -16.436573 4.6984496 89 47352090 40746 19 288 40746
-12.729213 -5.0049529 1.4990412 206 47450190 39124 19 260 39124
-43.339226 -16.427515 4.9962621 84 47547000 51798 19 442 51798
-44.890026 -16.388168 5.1503835 73 47644760 37568 19 460 37568
-46.688225 -16.398169 5.3319659 65 47741800 30864 19 417 30864
-48.561962 -16.389629 5.5213184 55 47839290 15612 19 437 15612
-50.663616 -16.409176 5.7355776 52 47936500 18192 19 457 18192
-53.143139 -16.494463 5.9913473 64 48033830 5368 19 404 5368
-55.277454 -16.415962 6.2075219 38 48130570 62697 19 446 62697
-57.828888 -16.40415 6.4694648 33 48228130 57507 19 384 57507
-60.485901 -16.358568 6.7422647 20 48326590 17748 19 464 17748
-63.719242 -16.396584 7.0779686 22 48424050 35012 19 465 35012
-0 -0 0 10 48520910 0 19 939 0
-0 -0 0 7 48618540 0 19 982 0
-0 -0 0 11 48717410 0 19 1081 0
-0 -0 0 10 48814990 0 19 1030 0
-0 -0 0 13 48912420 0 19 1004 0
-0 -0 0 12 49010340 0 19 1111 0
-0 -0 0 0 49108690 0 19 1042 0
-0 -0 0 10 49206150 0 19 958 0
-0 -0 0 8 49303240 0 19 515 0
-0 -0 0 10 49401280 0 19 533 0
-0 -0 0 7 49498730 0 19 624 0
-0 -0 0 6 49594990 0 19 697 0
-0 -0 0 8 49692530 0 19 958 0
-0 -0 0 0 49791470 0 19 1021 0
-0 -0 0 16 49888230 0 19 954 0
-101.08732 5.4753523 10.032576 33 0 23529 20 468 23529
-101.1138 6.7221699 10.042601 26 97680 9334 20 440 9334
-101.11199 7.9694443 10.051347 37 194370 64129 20 378 64129
-101.0928 9.2175045 10.059897 40 292650 25872 20 429 25872
-101.06413 10.466908 10.069037 30 389690 60808 20 463 60808
-101.10602 11.72697 10.086727 25 487750 816 20 445 816
-101.09071 12.984307 10.100289 37 585430 3360 20 483 3360
-0 0 0 20 683090 0 20 371 0
-101.22852 15.536011 10.148937 36 779870 56148 20 433 56148
-101.18928 16.80348 10.164858 39 878210 22956 20 441 22956
-101.1851 18.081423 10.185889 39 975300 27950 20 521 27950
-101.09341 19.348135 10.199746 26 1072700 17463 20 445 17463
-25.783098 5.2638779 2.6337411 16 1170750 11787 20 362 11787
-0 0 0 0 1268030 0 20 550 0
-0 0 0 10 1365590 0 20 567 0
-0 0 0 9 1462670 0 20 802 0
-0 0 0 8 1561160 0 20 908 0
-0 0 0 10 1658490 0 20 975 0
-65.499519 18.481173 6.7559981 43 1755610 5368 20 785 5368
-0 0 0 10 1853610 0 20 707 0
-0 0 0 8 1950670 0 20 1000 0
-0 0 0 13 2047840 0 20 1025 0
-0 0 0 10 2145520 0 20 949 0
-0 0 0 9 2244130 0 20 988 0
-0 0 0 11 2341140 0 20 1001 0
-0 0 0 8 2438470 0 20 938 0
-0 0 0 8 2536710 0 20 871 0
-0 0 0 7 2634500 0 20 698 0
-0 0 0 8 2731560 0 20 782 0
-0 0 0 11 2829870 0 20 546 0
-0 0 0 6 2928120 0 20 477 0
-0 0 0 6 3025390 0 20 445 0
-0 0 0 6 3122290 0 20 405 0
-0 0 0 8 3219630 0 20 443 0
-0 0 0 7 3317920 0 20 467 0
-0 0 0 7 3414930 0 20 454 0
-0 0 0 7 3511540 0 20 435 0
-0 0 0 10 3609580 0 20 496 0
-0 0 0 6 3707430 0 20 610 0
-0 0 0 0 3804440 0 20 717 0
-0 0 0 10 3901410 0 20 831 0
-0 0 0 8 3998720 0 20 945 0
-0 0 0 11 4096520 0 20 1002 0
-0 0 0 0 4192860 0 20 1016 0
-0 0 0 8 4290400 0 20 755 0
-27.72909 19.230434 3.3674824 20 4388500 23653 20 395 23653
-0 0 0 5 4486520 0 20 586 0
-0 0 0 10 4584730 0 20 749 0
-0 0 0 10 4682880 0 20 788 0
-0 0 0 0 4780900 0 20 750 0
-0 0 0 0 4879260 0 20 733 0
-0 0 0 7 4977250 0 20 541 0
-0 0 0 9 5074780 0 20 497 0
-0 0 0 6 5172260 0 20 451 0
-0 0 0 8 5269930 0 20 453 0
-0 0 0 7 5367160 0 20 439 0
-0 0 0 5 5464120 0 20 451 0
-0 0 0 9 5561400 0 20 415 0
-0 0 0 6 5658670 0 20 381 0
-12.493701 12.314668 1.7674235 685 5756200 16277 20 1144 16277
-12.296131 12.421089 1.7610354 680 5852760 13359 20 1077 13359
-12.1089 12.535975 1.7562199 700 5950390 18397 20 1045 18397
-11.934358 12.662624 1.7533698 753 6047050 33860 20 1061 33860
-11.717442 12.742199 1.7445248 731 6144320 24705 20 1111 24705
-11.535603 12.857624 1.7408886 726 6241900 22190 20 902 22190
-11.347456 12.96452 1.7364661 710 6339740 16368 20 983 16368
-11.155195 13.064954 1.7315521 713 6437320 16075 20 1080 16075
-10.974922 13.177922 1.7286038 682 6534900 6015 20 1009 6015
-10.78101 13.272987 1.7236899 715 6632790 14782 20 1045 14782
-10.601252 13.384006 1.7211348 784 6730520 34282 20 1110 34282
-10.405795 13.473712 1.7162209 752 6829030 23739 20 1165 23739
-10.17502 13.514533 1.7056068 372 6926030 42247 20 1501 42247
-9.9883909 13.6111 1.7022654 384 7024390 45160 20 1197 45160
-7.9270024 11.084942 1.3807992 499 7122540 28075 20 1248 28075
-7.5360641 10.816411 1.336869 432 7220880 10408 20 1296 10408
-7.2993722 10.755745 1.3186877 329 7318920 56254 20 1305 56254
-7.2217054 10.92753 1.3285154 455 7417170 13429 20 832 13429
-9.1365662 14.200492 1.7025603 749 7514390 19171 20 1100 19171
-8.9558067 14.302265 1.7014792 713 7612940 8527 20 995 8527
-8.7873888 14.423838 1.7029533 758 7711230 21940 20 960 21940
-8.5833435 14.486067 1.697843 492 7809320 9942 20 632 9942
-8.4049311 14.590307 1.697843 474 7906350 4898 20 583 4898
-8.2179594 14.679325 1.6963688 480 8003930 6362 20 587 6362
-8.0381536 14.780815 1.6965653 456 8101970 65001 20 501 65001
-7.8728948 14.910023 1.7001033 499 8199350 12344 20 510 12344
-7.7020416 15.03031 1.7028551 469 8296570 4028 20 568 4028
-7.5192313 15.12815 1.7033465 513 8393900 16991 20 604 16991
-7.2673554 15.083014 1.6884083 151 8492090 43000 20 816 43000
-20.85993 44.684906 4.9050364 31 8589250 12483 20 948 12483
-20.138271 44.55756 4.8638582 23 8685860 57704 20 933 57704
-19.538931 44.684624 4.8512788 23 8783390 57111 20 947 57111
-4.18156 9.893302 1.0956956 30 8881530 3549 20 868 3549
-4.0888071 10.014812 1.103263 383 8978410 45340 20 382 45340
-17.51792 44.452293 4.7534924 22 9076130 52774 20 1049 52774
-16.946712 44.599731 4.7467113 31 9174430 7516 20 1062 7516
-16.326298 44.608082 4.7260728 32 9272520 9038 20 1068 9038
-15.709565 44.61171 4.7058277 26 9370160 59730 20 1101 59730
-15.107335 44.642765 4.6893172 33 9468760 9512 20 1099 9512
-14.506408 44.664841 4.672708 30 9566650 1889 20 1120 1889
-13.91018 44.688412 4.6570821 27 9664640 61738 20 1047 61738
-13.299941 44.651646 4.6360507 44 9761450 31073 20 1028 31073
-12.706054 44.653561 4.6198349 33 9858930 6543 20 908 6543
-12.112044 44.639969 4.6028328 38 9957220 18354 20 941 18354
-11.514815 44.597347 4.5836687 58 10054500 59587 20 990 59587
-10.952215 44.676334 4.5776734 55 10151880 53846 20 936 53846
-10.365556 44.645485 4.5612612 35 10249870 9713 20 982 9713
-9.7960157 44.674065 4.55163 38 10347130 15933 20 971 15933
-9.2227106 44.672985 4.5397387 46 10443440 33190 20 923 33190
-8.6505327 44.662628 4.5276504 38 10541330 14916 20 749 14916
-0 0 0 9 10638340 0 20 280 0
-4.5236788 26.874319 2.7263188 47 10735670 35684 20 509 35684
-0 0 0 13 10833140 0 20 380 0
-3.4190946 23.879076 2.4172356 18 10930770 10743 20 428 10743
-0 0 0 15 11027750 0 20 548 0
-2.6632962 22.528727 2.2753224 36 11125370 18796 20 902 18796
-2.8122325 26.581583 2.6747229 41 11223770 29992 20 856 29992
-2.4706421 26.451593 2.6586056 19 11321660 13833 20 644 13833
-1.9051998 23.511147 2.3644605 34 11419190 19408 20 744 19408
-1.5942279 23.208105 2.3323236 43 11517130 23776 20 863 23776
-2.4309855 43.113419 4.2994494 53 11614910 35537 20 728 35537
-1.0317332 23.411242 2.3492274 54 11712450 30430 20 936 30430
-0.79833877 25.119022 2.5168891 132 11810030 18755 20 672 18755
-0.54019815 27.695938 2.770642 37 11907550 28886 20 659 28886
-0.16520214 22.864136 2.2930126 53 12006060 28310 20 619 28310
0.12532051 24.843788 2.4884868 61 12103220 38188 20 660 38188
0.3653537 21.091181 2.1181765 39 12201680 17888 20 713 17888
0.57558471 19.44282 1.9559201 29 12299920 11370 20 834 11370
0.82170928 19.615253 1.9738066 92 12397500 36094 20 721 36094
1.1083703 20.453308 2.0578341 84 12494730 35690 20 664 35690
1.6260155 24.450748 2.4549742 23 12592550 14378 20 609 14378
1.5058401 19.098494 1.9269282 33 12690450 12443 20 740 12443
2.2339804 24.495647 2.464114 54 12788690 33232 20 646 33232
2.0952549 20.225805 2.0430925 59 12886530 24882 20 738 24882
1.2800317 11.030919 1.1316652 180 12984410 22525 20 705 22525
1.4188513 11.042018 1.1344171 225 13082200 28263 20 599 28263
1.5900769 11.278014 1.1597726 232 13179430 30399 20 683 30399
2.985985 19.452381 1.978524 88 13277110 34611 20 749 34611
1.797255 10.819347 1.1181029 320 13375350 38936 20 629 38936
2.031945 11.367608 1.1753988 58 13473540 7838 20 667 7838
2.0074251 10.485598 1.0893075 88 13570470 10192 20 742 10192
2.251193 11.024728 1.1462103 141 13667780 18071 20 651 18071
9.6345015 44.405766 4.5223432 23 13765320 48954 20 751 48954
2.4811745 10.792554 1.1286186 109 13863510 13545 20 533 13545
11.624159 47.87431 4.9002209 18 13961090 45577 20 392 45577
4.7976208 18.750771 1.9463872 44 14058470 16801 20 528 16801
5.0237417 18.677031 1.9450113 54 14155430 20730 20 705 20730
5.3857832 19.086153 1.9934622 40 14252600 15941 20 675 15941
13.668815 46.26326 4.798995 31 14350080 7746 20 785 7746
6.4886136 21.007765 2.2063317 103 14447470 50656 20 833 50656
6.6268559 20.557161 2.1680033 124 14545400 58739 20 842 58739
6.7011604 19.946012 2.1129677 84 14642730 37564 20 919 37564
7.006516 20.037004 2.1312475 140 14740700 63733 20 798 63733
7.4463286 20.484503 2.1874623 100 14838350 48339 20 718 48339
7.6015611 20.138336 2.1607308 142 14936270 1280 20 714 1280
7.893105 20.158443 2.1729171 144 15034120 2816 20 642 2816
7.8121295 19.252266 2.0868258 163 15131790 5583 20 674 5583
8.1626568 19.42836 2.1161127 191 15229440 20417 20 729 20417
8.4508352 19.44264 2.1285939 110 15327580 50342 20 1045 50342
9.23244 20.547501 2.259598 132 15425460 2452 20 843 2452
9.5534401 20.582502 2.2759123 113 15523300 59174 20 598 59174
9.9317179 20.727571 2.3048058 122 15621090 65354 20 632 65354
10.483869 21.208101 2.3713398 115 15719020 10 20 579 10
10.765478 21.121296 2.3761554 98 15816440 56068 20 484 56068
10.809149 20.578798 2.3305545 130 15914190 5412 20 687 5412
11.35634 20.990782 2.3918798 131 16012280 9950 20 317 9950
10.905148 19.578764 2.2481978 173 16110260 22479 20 859 22479
11.009989 19.208622 2.2214663 223 16207530 45287 20 588 45287
11.071524 18.778023 2.1877573 213 16304460 37041 20 487 37041
12.927213 21.323092 2.4975283 99 16402040 62322 20 431 62322
13.957875 22.398504 2.6413085 126 16499610 23343 20 418 23343
12.941655 20.210785 2.4050491 136 16597340 14104 20 814 14104
13.223697 20.103661 2.4113388 164 16694570 30521 20 774 30521
13.407018 19.847511 2.4003317 177 16792930 37272 20 867 37272
13.634823 19.660229 2.3977766 95 16890090 55427 20 1050 55427
22.20948 31.200155 3.8171027 52 16987930 12112 20 757 12112
26.332817 36.048203 4.4436231 29 17085970 58661 20 789 58661
26.464645 35.310638 4.3928132 27 17183450 54611 20 602 54611
26.872919 34.953239 4.3890786 36 17280360 6597 20 605 6597
28.208694 35.773468 4.5340385 22 17378300 46925 20 531 46925
20.183882 24.96014 3.2050292 62 17476440 65304 20 1179 65304
19.596878 23.634981 3.0670476 70 17574540 1680 20 851 1680
19.915731 23.428356 3.0716665 137 17672310 434 20 952 434
19.919954 22.858828 3.0293088 125 17770260 50782 20 1002 50782
20.519167 22.971136 3.076777 101 17868300 31739 20 859 31739
21.286713 23.249756 3.1480284 66 17965530 1668 20 809 1668
21.368858 22.771978 3.1189382 94 18063350 27421 20 876 27421
21.634279 22.495123 3.1171691 76 18161600 10061 20 823 10061
21.853514 22.171951 3.1094053 88 18259440 20794 20 897 20794
21.855213 21.636051 3.0720596 85 18357280 16505 20 1048 16505
24.710787 23.869829 3.4279232 109 18455680 65315 20 1177 65315
12.18322 11.482491 1.68831 103 18553250 29216 20 780 29216
12.159131 11.181225 1.6662958 164 18651240 45225 20 677 45225
25.329672 22.726131 3.3956881 82 18748970 31446 20 814 31446
25.966078 22.728207 3.4428613 90 18846760 43882 20 922 43882
26.679703 22.780722 3.4995675 104 18945010 64064 20 1120 64064
27.874851 23.215868 3.6175008 53 19042850 5145 20 1130 5145
28.934708 23.503271 3.7163682 34 19139760 48384 20 1327 48384
40.604485 32.163853 5.1505342 47 19237550 63350 20 1432 63350
41.60651 32.13459 5.2266994 57 19335030 28182 20 1490 28182
42.772045 32.204632 5.322422 57 19432090 34361 20 1480 34361
43.813076 32.153664 5.4019284 56 19530650 38490 20 1399 38490
45.060745 32.226074 5.5059061 59 19627660 52351 20 1476 52351
46.093765 32.117294 5.5830541 41 19724840 1851 20 264 1851
0 0 0 12 19822060 0 20 686 0
15.374956 10.161208 1.8549889 50 19920560 17240 20 545 17240
0 0 0 9 20018400 0 20 675 0
0 0 0 13 20116080 0 20 726 0
0 0 0 9 20213550 0 20 771 0
0 0 0 13 20311740 0 20 817 0
0 0 0 8 20408670 0 20 866 0
0 0 0 10 20506860 0 20 826 0
0 0 0 10 20604540 0 20 835 0
21.616463 11.414412 2.4490774 13 20702170 7987 20 779 7987
21.839928 11.191856 2.4585121 139 20799240 19080 20 906 19080
22.298216 11.083359 2.4940886 125 20897240 12914 20 657 12914
27.815149 13.402617 3.0841479 28 20994860 26965 20 805 26965
22.26232 10.392192 2.4612639 114 21091870 4285 20 743 4285
29.859583 13.495123 3.2709737 37 21189970 40543 20 761 40543
30.54631 13.356544 3.3273849 18 21288010 21264 20 467 21264
32.349583 13.674683 3.5034003 26 21385340 32816 20 536 32816
33.432579 13.651381 3.601285 30 21482050 40789 20 694 40789
29.620117 11.672566 3.1790841 58 21579940 59482 20 678 59482
29.766708 11.310324 3.1796737 37 21677720 38617 20 724 38617
30.801344 11.272896 3.2741187 38 21774890 42086 20 721 42086
30.980539 10.909272 3.2786393 60 21871750 681 20 831 681
31.886932 10.790498 3.3594236 25 21969500 28813 20 440 28813
38.954689 12.651756 4.0797992 26 22067270 44541 20 542 44541
39.014843 12.144079 4.0702662 40 22165110 2633 20 526 2633
31.515711 9.3870687 3.2824721 39 22261970 43478 20 597 43478
38.946018 11.0819 4.0338049 43 22359600 6844 20 263 6844
26.981499 7.3205485 2.7958994 25 22456780 20198 20 623 20198
26.678097 6.8878803 2.7559986 42 22553640 32372 20 665 32372
26.801208 6.5699325 2.7601264 52 22650600 40252 20 536 40252
26.998077 6.2680054 2.7721162 48 22748190 37361 20 557 37361
26.655949 5.8447771 2.729955 42 22845670 31811 20 541 31811
26.412817 5.4526358 2.6984079 69 22942680 50929 20 652 50929
26.82653 5.1956601 2.7334931 37 23040570 28578 20 587 28578
27.845972 5.0394092 2.8296087 46 23137850 37539 20 412 37539
28.769304 4.8427033 2.9160929 33 23235940 28891 20 505 28891
29.289701 4.5614319 2.9623818 37 23334380 32913 20 565 32913
27.605742 3.9527957 2.7890201 53 23431190 42374 20 581 42374
0 0 0 11 23528270 0 20 333 0
34.774426 4.1113157 3.4930813 42 23626760 53048 20 594 53048
34.497662 3.6499212 3.4608462 25 23725000 31022 20 515 31022
34.023624 3.178077 3.4096434 31 23822230 36828 20 549 36828
38.839062 3.1477106 3.8831453 28 23919260 43089 20 564 43089
34.495445 2.3699069 3.4496424 41 24017080 49991 20 644 49991
34.558693 1.9484897 3.4532788 26 24113790 31825 20 656 31825
34.757965 1.5321022 3.4708705 34 24212040 41942 20 655 41942
38.826374 1.2343483 3.8712537 79 24309460 55555 20 522 55555
38.848549 0.7579903 3.8722365 61 24407460 28863 20 355 28863
38.887764 0.28143999 3.8754797 183 24504930 17813 20 308 17813
38.899239 -0.19584884 3.8765607 179 24601140 12764 20 240 12764
38.949627 -0.67415106 3.8820643 159 24699290 47045 20 230 47045
38.913551 -1.1513368 3.8796074 193 24797160 34224 20 270 34224
0 -0 0 12 24894690 0 20 1036 0
67.887711 -3.6773257 6.7491188 24 24991300 47559 20 895 47559
67.847404 -4.5107956 6.7501016 25 25089240 55316 20 1050 55316
0 -0 0 12 25186420 0 20 863 0
0 -0 0 7 25283950 0 20 520 0
19.746712 -2.0456395 1.995526 162 25380810 64686 20 514 64686
19.330639 -2.2426357 1.9568046 158 25479050 60538 20 541 60538
19.241453 -2.4719505 1.9508097 78 25576370 29706 20 557 29706
18.81353 -2.6520586 1.9113021 165 25673800 60474 20 473 60474
17.261808 -2.649802 1.7596595 148 25771030 45687 20 536 45687
17.485201 -2.9041419 1.7854084 187 25868550 59427 20 423 59427
17.40612 -3.1109664 1.7811824 119 25966650 37873 20 350 37873
19.270649 -3.6887262 1.9726273 121 26064160 47176 20 419 47176
17.426912 -3.5580962 1.7915015 110 26162070 35175 20 333 35175
16.840235 -3.6541612 1.7367609 194 26259130 58323 20 402 58323
17.480795 -4.018362 1.8063415 129 26356920 41918 20 342 41918
18.706692 -4.5425048 1.9360681 187 26455110 4511 20 208 4511
17.895605 -4.5788465 1.8592149 260 26552890 24244 20 166 24244
17.903416 -4.8156834 1.8658978 179 26649550 62463 20 234 62463
17.891819 -5.0488052 1.8709099 192 26747290 1758 20 250 1758
17.751211 -5.2451463 1.8629494 147 26845890 50868 20 228 50868
11.375691 -3.513896 1.2107787 1996 26943110 23616 20 1109 23616
11.49368 -3.705435 1.2275842 3365 27040090 36922 20 2424 36922
11.450173 -3.847152 1.227879 3550 27137910 64379 20 2459 64379
11.378616 -3.9791622 1.2254221 3125 27235190 65397 20 2363 65397
11.349505 -4.1259747 1.2275842 3211 27331080 14198 20 2275 14198
17.507191 -6.6084814 1.8829981 218 27428410 11718 20 290 11718
17.458136 -6.835885 1.886536 114 27525570 40604 20 185 40604
20.365295 -8.26373 2.2054472 33 27622600 16462 20 144 16462
19.674246 -8.265955 2.142451 71 27719040 33074 20 124 33074
18.907806 -8.2183867 2.0710032 341 27817550 15442 20 189 15442
18.842749 -8.4665174 2.0750327 405 27915590 43533 20 93 43533
18.846655 -8.7478018 2.0869243 309 28012350 3974 20 141 3974
26.210196 -12.558551 2.9051843 72 28110030 61527 20 100 61527
16.710911 -8.2609138 1.8759221 240 28208070 18743 20 211 18743
16.302385 -8.3094587 1.8420162 298 28304930 35461 20 264 35461
15.789509 -8.2937164 1.7963171 317 28402680 36523 20 263 36523
15.349558 -8.3045511 1.7584802 362 28500720 46085 20 239 46085
14.937852 -8.3203907 1.7235917 371 28598500 44218 20 260 44218
6.7445393 -3.8663239 0.80272985 471 28696240 28764 20 424 28764
6.832891 -4.0291586 0.81835598 665 28793720 42315 20 232 42315
6.6808128 -4.0507984 0.80656266 312 28891240 19250 20 310 19250
6.6939454 -4.1719494 0.81393349 512 28989480 32222 20 356 32222
6.5969887 -4.224803 0.80862653 629 29086610 38996 20 313 38996
6.4573464 -4.2480192 0.79830736 682 29183720 41197 20 259 41197
6.7840743 -4.5831728 0.8435151 224 29281610 15197 20 172 15197
6.1916866 -4.2946258 0.77914321 256 29378890 14708 20 169 14708
6.2747231 -4.467236 0.79565388 614 29476720 36796 20 323 36796
5.6697698 -4.1423912 0.72843194 510 29574710 25402 20 450 25402
11.342562 -8.5015898 1.4348519 521 29671890 40286 20 396 40286
5.1403694 -3.9527516 0.67536199 408 29769610 17352 20 498 17352
5.1782165 -4.0839305 0.68627083 702 29866890 30870 20 261 30870
5.0975313 -4.1227641 0.68243796 394 29965180 17126 20 277 17126
5.1292925 -4.2536073 0.69305199 582 30062880 26139 20 232 26139
5.2313886 -4.4477148 0.71310061 341 30159990 16242 20 558 16242
4.7442579 -4.1349978 0.65649265 731 30257780 29263 20 267 29263
3.1961551 -2.8557525 0.45826659 572 30355410 10629 20 469 10629
3.1395838 -2.8752713 0.45541656 550 30452930 10087 20 464 10087
3.1889703 -2.9932542 0.46691504 797 30550770 15404 20 324 15404
5.5771518 -5.3644114 0.79919183 382 30648550 23135 20 621 23135
8.5557766 -8.4334641 1.2213928 680 30745780 33677 20 487 33677
8.2668028 -8.351119 1.1954474 331 30842800 46288 20 809 46288
8.1229057 -8.409708 1.1896491 556 30940480 11287 20 521 11287
7.9481063 -8.4334412 1.1794282 571 31038560 11959 20 525 11959
3.8068967 -4.1404877 0.59045005 434 31136000 13892 20 592 13892
3.7631104 -4.1950402 0.5915311 737 31233060 23666 20 243 23666
3.318727 -3.7923672 0.53266281 606 31330750 15553 20 521 15553
7.2035508 -8.437151 1.1305841 679 31428700 18944 20 489 18944
2.8807399 -3.4597497 0.47959286 517 31526270 10598 20 614 10598
2.9660671 -3.6524153 0.49964151 688 31624470 15392 20 398 15392
3.3226764 -4.1955829 0.56352198 924 31722910 26756 20 234 26756
2.9740851 -3.8516963 0.51556247 668 31821270 15994 20 594 15994
2.5853939 -3.4347539 0.45954421 693 31918130 12938 20 434 12938
3.5763888 -4.8742299 0.63202155 834 32016120 30782 20 223 30782
3.5631967 -4.9833164 0.63998204 121 32114100 4611 20 152 4611
3.5387559 -5.0797391 0.64637005 545 32212910 21131 20 236 21131
5.7624841 -8.4913616 1.048424 118 32310450 12563 20 100 12563
3.4234529 -5.1808286 0.64823735 336 32408380 13092 20 205 13092
5.479125 -8.516407 1.0350583 107 32505900 11126 20 66 11126
5.6150541 -8.9676046 1.0798728 134 32603900 15216 20 160 15216
5.5434194 -9.0995731 1.0872437 184 32701890 21205 20 237 21205
5.5647626 -9.3920765 1.1130908 513 32799780 61793 20 178 61793
5.4490886 -9.4596577 1.1130908 506 32896130 60898 20 113 60898
2.9163728 -5.2102375 0.62465072 210 32993770 7562 20 339 7562
5.0945268 -9.3684826 1.0881282 327 33091800 37651 20 130 37651
2.7764759 -5.2591195 0.62229204 406 33189640 14500 20 342 14500
4.7813811 -9.3312731 1.0704383 428 33286600 47580 20 390 47580
2.6997306 -5.43261 0.63408536 264 33383980 9829 20 403 9829
4.0511165 -8.4085503 0.95673096 994 33481400 21948 20 300 21948
3.9366806 -8.434185 0.95417577 1052 33579250 26544 20 285 26544
3.791487 -8.3902693 0.94424969 826 33677190 5224 20 404 5224
3.8022707 -8.6969385 0.97235709 802 33775010 7480 20 172 7480
3.7351711 -8.8373547 0.98247969 409 33872860 38083 20 151 38083
2.292768 -5.6164947 0.63408536 516 33969620 19178 20 223 19178
3.3183079 -8.4217691 0.92891836 117 34067710 9700 20 88 9700
2.0966229 -5.5194378 0.61806607 599 34166150 21097 20 199 21097
1.9900819 -5.4391489 0.60696071 262 34263280 8889 20 411 8889
3.1125154 -8.8404474 0.96056378 174 34360910 15481 20 171 15481
3.1077924 -9.1852779 0.99260235 3755 34458850 28907 20 2578 28907
2.973629 -9.1574163 0.98582119 377 34557460 35357 20 154 35357
2.8423953 -9.1333561 0.9796297 717 34654170 755 20 173 755
2.7144756 -9.1150932 0.97422439 958 34751750 21990 20 206 21990
2.601598 -9.144846 0.97392958 1041 34849470 29492 20 230 29492
2.4954352 -9.1991329 0.9762882 1206 34948550 45152 20 175 45152
2.3681784 -9.1741409 0.97068638 1175 35046330 41022 20 183 41022
2.2262733 -9.0836267 0.95859826 760 35144220 1614 20 204 1614
2.0925779 -9.0152645 0.94896704 864 35241990 9264 20 267 9264
2.0184538 -9.2074594 0.9658708 1089 35340140 32184 20 225 32184
1.9069219 -9.2393322 0.96665704 3453 35436250 48271 20 2425 48271
1.7797718 -9.1916933 0.95958102 383 35534120 33919 20 205 33919
1.5487981 -8.5606623 0.89412808 1124 35631100 20403 20 288 20403
1.4396639 -8.5554714 0.89176941 1010 35728630 11265 20 196 11265
1.3330351 -8.5626612 0.89078665 1005 35825690 10752 20 233 10752
1.2226378 -8.5419264 0.88715035 1077 35923010 15504 20 264 15504
1.1168203 -8.5493793 0.88646245 1113 36020410 18039 20 306 18039
1.0114716 -8.5594759 0.88616759 1130 36119070 19265 20 293 19265
0.90447247 -8.5534306 0.88439858 1135 36216790 19264 20 327 19264
0.79795951 -8.5480318 0.88282615 1149 36314640 19998 20 325 19998
0.69219786 -8.5472612 0.88184339 1095 36411910 15811 20 300 15811
0.58650714 -8.5441914 0.88076234 1130 36510310 18166 20 339 18166
0.48222905 -8.5616741 0.88184339 947 36608180 4861 20 237 4861
0.37537417 -8.5271797 0.87791228 884 36705310 65089 20 258 65089
0.26969185 -8.4993153 0.87476736 854 36803420 62435 20 235 62435
0.16494441 -8.4800949 0.87260526 859 36901390 62459 20 270 62459
0.061171364 -8.5232763 0.87673295 898 36998400 400 20 272 400
-0.043411974 -8.5204 0.87643808 991 37095500 7171 20 275 7171
-0.14765742 -8.5013151 0.87466913 794 37194190 58036 20 247 58036
-0.25241175 -8.5137844 0.87614328 789 37292570 57847 20 288 57847
-0.35903415 -8.5617485 0.88125372 903 37389640 1491 20 251 1491
-0.46531072 -8.5795536 0.88351411 979 37486870 7516 20 257 7516
-0.57016397 -8.5672398 0.88292444 1070 37585210 14126 20 335 14126
-0.67611432 -8.5705099 0.88400549 1117 37684070 17904 20 354 17904
-0.78159815 -8.5655327 0.88439858 1088 37780920 15748 20 335 15748
-0.88931686 -8.5810328 0.88695383 1048 37878680 13250 20 313 13250
-0.99524027 -8.5754042 0.8875435 1084 37976620 16114 20 244 16114
-1.1014129 -8.5704412 0.88832968 1035 38074610 12549 20 282 12549
-1.2076135 -8.5641642 0.88911593 1067 38171110 15105 20 298 15105
-1.3157881 -8.569356 0.89117974 1052 38268880 14343 20 319 14343
-1.4071548 -8.4700994 0.88292444 138 38367070 10275 20 227 10275
-3.6137161 -20.219652 2.0634358 233 38465050 34149 20 346 34149
-1.6280659 -8.5033894 0.8900004 341 38561980 25863 20 151 25863
-1.7450317 -8.5451736 0.89629018 430 38660020 33088 20 146 33088
-1.8569365 -8.5561829 0.89963162 470 38757850 36429 20 161 36429
-1.9617941 -8.5327511 0.89963162 526 38856210 40754 20 177 40754
-2.077157 -8.5525188 0.90415239 543 38953730 42523 20 155 42523
-2.1858995 -8.541811 0.90572488 608 39052210 47776 20 168 47776
-2.3003774 -8.5508614 0.90945941 625 39149620 49523 20 187 49523
-2.4151349 -8.5574255 0.91309565 647 39247400 51712 20 154 51712
-2.5366018 -8.5834522 0.91889405 660 39344440 53402 20 213 53402
-2.6479096 -8.5716457 0.92095792 688 39442100 55929 20 211 55929
-2.7568665 -8.5508194 0.92223549 654 39539490 53316 20 223 53316
-2.872999 -8.5503054 0.9257735 697 39637000 57312 20 172 57312
-2.9921601 -8.5557394 0.9300977 662 39734030 54938 20 215 54938
-3.1135845 -8.5642061 0.93491334 689 39831140 57811 20 188 57811
-3.220906 -8.5318699 0.93560129 663 39928500 55696 20 211 55696
-3.3547499 -8.566762 0.94356173 653 40026540 55832 20 209 55832
-3.4753392 -8.5636787 0.94768941 601 40124430 51876 20 181 51876
-3.5678329 -8.4910269 0.94454455 850 40221780 7281 20 219 7281
-3.6753323 -8.4548187 0.94542903 864 40320620 8685 20 268 8685
-3.8024638 -8.46173 0.95112914 890 40418210 11891 20 244 11891
-3.9311528 -8.4685907 0.95702583 871 40515990 11205 20 262 11205
-4.0635891 -8.4798422 0.96361041 887 40613500 13713 20 283 13713
-4.1902747 -8.475728 0.96872085 879 40711380 13873 20 268 13873
-4.3174677 -8.4697742 0.9738313 849 40808620 11993 20 295 11993
-4.4553218 -8.4813509 0.98110384 882 40906400 16290 20 260 16290
-4.5751653 -8.4557981 0.98444527 848 41004220 13701 20 248 13701
-4.7110291 -8.4572678 0.99102986 832 41102600 13294 20 237 13294
-4.8520665 -8.4644375 0.99849898 849 41200640 16146 20 254 16146
-4.9848866 -8.4539795 1.004199 831 41298340 15368 20 260 15368
-5.1377802 -8.4738665 1.0136337 832 41395830 17029 20 284 17029
-5.2755895 -8.4650793 1.0200218 821 41493750 16994 20 302 16994
-5.4273677 -8.4751291 1.0288668 837 41591450 20162 20 239 20162
-5.5583053 -8.449461 1.0337807 847 41687890 22007 20 286 22007
-5.7250752 -8.4746265 1.0449843 820 41785380 21147 20 267 21147
-5.8723083 -8.4667006 1.0525517 813 41882510 21709 20 263 21709
-6.032321 -8.4734535 1.0621829 815 41980090 23575 20 280 23575
-6.1939621 -8.4783459 1.0719124 796 42076980 23144 20 291 23144
-6.3458805 -8.4662018 1.0798728 811 42174170 26264 20 233 26264
-6.5129833 -8.4705305 1.0901921 785 42270920 25020 20 288 25020
-6.6663499 -8.4532652 1.0981525 748 42368490 22094 20 256 22094
-6.8540554 -8.4752893 1.11142 762 42466370 25954 20 276 25954
-7.0286837 -8.4763432 1.1224271 733 42564010 24278 20 289 24278
-7.2004919 -8.4698257 1.1328446 714 42662010 23647 20 275 23647
-7.3829956 -8.4716091 1.1447362 710 42760980 25080 20 281 25080
-7.5633006 -8.466465 1.1561364 707 42858680 26527 20 304 26527
-7.7627234 -8.4779768 1.1701901 711 42956940 29389 20 303 29389
-7.9349532 -8.4553738 1.1801162 671 43054800 25664 20 273 25664
-8.1312408 -8.4541969 1.1933836 653 43153740 25250 20 295 25250
-8.3433504 -8.464345 1.208715 616 43252580 22355 20 324 22355
-8.551259 -8.4649439 1.22326 624 43350040 25771 20 287 25771
-8.7632856 -8.4644642 1.2381983 627 43448600 28543 20 281 28543
-33.331306 -31.415798 4.5583129 76 43547340 31850 20 241 31850
-33.994865 -31.262409 4.5959535 52 43644820 46489 20 229 46489
-34.963326 -31.369913 4.6738877 50 43741910 47444 20 264 47444
-35.833122 -31.365202 4.7378664 60 43838960 8044 20 259 8044
-36.825302 -31.443968 4.8170781 56 43936250 3506 20 249 3506
-37.623608 -31.335526 4.8704429 34 44033710 17307 20 205 17307
-38.554508 -31.317587 4.9403181 28 44130420 5138 20 188 5138
-39.569332 -31.343863 5.0201197 34 44227630 22091 20 224 22091
-40.158127 -31.015911 5.0459666 104 44325160 9330 20 297 9330
-40.165249 -30.241827 5.0001693 97 44421680 52682 20 269 52682
-40.129787 -29.450495 4.9507356 86 44519530 19611 20 297 19611
-40.104492 -28.681421 4.9041519 99 44617220 47210 20 308 47210
-40.158684 -27.981733 4.8686738 85 44715030 10309 20 284 10309
-40.107094 -27.220797 4.8218937 86 44811840 8407 20 183 8407
-40.248829 -26.601463 4.7994862 10 44910080 25673 20 124 25673
-0 -0 0 4 45007720 0 20 109 0
-40.165878 -25.152515 4.7151642 41 45105900 29304 20 136 29304
-0 -0 0 0 45204210 0 20 135 0
-0 -0 0 0 45302870 0 20 92 0
-40.169395 -23.141418 4.613152 56 45399630 57412 20 155 57412
-0 -0 0 4 45498120 0 20 146 0
-0 -0 0 3 45596170 0 20 131 0
-40.122753 -21.187157 4.5158572 51 45693140 40909 20 207 40909
-40.464752 -20.736765 4.5252914 86 45789890 49655 20 280 49655
-17.307863 -8.6027327 1.9437337 80 45887160 30403 20 162 30403
-0 -0 0 0 45984640 0 20 153 0
-40.545933 -18.927696 4.4539418 84 46081680 38939 20 220 38939
-40.503101 -18.30575 4.424459 26 46179090 52064 20 219 52064
-40.589745 -17.748327 4.4099135 54 46277670 42119 20 193 42119
-40.416759 -17.084984 4.3683424 60 46375660 52730 20 250 52730
-40.322109 -16.464699 4.3362055 105 46472800 5626 20 279 5626
-12.737173 -5.0190067 1.3869907 213 46571230 40346 20 210 40346
-44.049946 -16.737799 4.6886292 63 46668890 12305 20 352 12305
-44.882835 -16.426861 4.7549667 70 46766630 31367 20 412 31367
-46.590397 -16.406372 4.9129972 67 46863910 34164 20 453 34164
-48.561329 -16.433456 5.0978575 65 46962240 43229 20 498 43229
-50.636219 -16.445908 5.2927423 60 47060030 41248 20 437 41248
-53.108971 -16.531382 5.528019 80 47157460 55702 20 373 55702
-55.327869 -16.480125 5.7361708 49 47255100 33879 20 459 33879
-57.527363 -16.369457 5.9416695 17 47352090 62869 20 299 62869
-60.422718 -16.394577 6.2178297 18 47450190 5865 20 341 5865
-63.69117 -16.445038 6.5311389 26 47547000 52010 20 472 52010
-0 -0 0 8 47644760 0 20 878 0
-0 -0 0 10 47741800 0 20 1121 0
-0 -0 0 11 47839290 0 20 1164 0
-0 -0 0 0 47936500 0 20 1082 0
-0 -0 0 9 48033830 0 20 1030 0
-0 -0 0 9 48130570 0 20 925 0
-0 -0 0 14 48228130 0 20 896 0
-0 -0 0 8 48326590 0 20 868 0
-0 -0 0 10 48424050 0 20 784 0
-0 -0 0 7 48520910 0 20 593 0
-0 -0 0 9 48618540 0 20 1115 0
-0 -0 0 10 48717410 0 20 1204 0
-0 -0 0 10 48814990 0 20 1147 0
-0 -0 0 0 48912420 0 20 1050 0
-0 -0 0 0 49010340 0 20 1092 0
-0 -0 0 8 49108690 0 20 1063 0
-0 -0 0 12 49206150 0 20 1084 0
-0 -0 0 11 49303240 0 20 908 0
-0 -0 0 11 49401280 0 20 727 0
-0 -0 0 9 49498730 0 20 719 0
-0 0 0 7 49594990 0 20 715 0
-0 0 0 7 49692530 0 20 615 0
-101.62594 3.0057502 10.075523 25 49791470 4329 20 515 4329
-101.60328 4.2535462 10.077685 32 49888230 6727 20 458 6727
-0 0 0 9 0 0 21 708 0
-101.0589 3.0227432 9.058403 52 97680 14719 21 540 14719
-101.08087 4.2654772 9.0643597 32 194370 3418 21 335 3418
-101.04678 5.5069833 9.0666704 42 292650 48304 21 487 48304
-101.10774 6.7556648 9.0788488 33 389690 15747 21 440 15747
-101.13241 8.0050201 9.0891609 32 487750 7149 21 429 7149
-101.10095 9.2522755 9.0958281 33 585430 17039 21 440 17039
-101.04618 10.49914 9.1017838 37 683090 58199 21 450 58199
-101.04428 11.753993 9.1138735 51 779870 12005 21 413 12005
-101.06037 13.014705 9.1289854 30 878210 62081 21 463 62081
-0 0 0 28 975300 0 21 352 0
-101.20376 15.566794 9.173521 38 1072700 10738 21 435 10738
-101.15052 16.831745 9.1866779 41 1170750 44990 21 421 44990
-101.20892 18.12055 9.2113905 38 1268030 19001 21 382 19001
-101.06697 19.378054 9.2193909 32 1365590 24007 21 467 24007
-25.838406 5.2838178 2.3888419 18 1462670 12641 21 342 12641
-0 0 0 0 1561160 0 21 513 0
-0 0 0 7 1658490 0 21 487 0
-0 0 0 6 1755610 0 21 582 0
-0 0 0 11 1853610 0 21 558 0
-0 0 0 7 1950670 0 21 671 0
-0 0 0 8 2047840 0 21 972 0
-0 0 0 11 2145520 0 21 918 0
-0 0 0 8 2244130 0 21 1090 0
-13.681035 4.4151244 1.3181101 22 2341140 4771 21 472 4771
-0 0 0 9 2438470 0 21 713 0
-0 0 0 9 2536710 0 21 833 0
-0 0 0 13 2634500 0 21 943 0
-0 0 0 10 2731560 0 21 982 0
-0 0 0 10 2829870 0 21 910 0
-0 0 0 7 2928120 0 21 691 0
-0 0 0 8 3025390 0 21 889 0
-0 0 0 8 3122290 0 21 788 0
-0 0 0 8 3219630 0 21 506 0
-0 0 0 6 3317920 0 21 506 0
-0 0 0 7 3414930 0 21 587 0
-0 0 0 5 3511540 0 21 464 0
-0 0 0 0 3609580 0 21 473 0
-0 0 0 7 3707430 0 21 475 0
-0 0 0 7 3804440 0 21 497 0
-0 0 0 8 3901410 0 21 518 0
-0 0 0 7 3998720 0 21 637 0
-0 0 0 8 4096520 0 21 853 0
-0 0 0 9 4192860 0 21 975 0
-0 0 0 12 4290400 0 21 925 0
-0 0 0 9 4388500 0 21 905 0
-0 0 0 7 4486520 0 21 846 0
-0 0 0 9 4584730 0 21 762 0
-27.784227 19.282049 3.0534158 20 4682880 23256 21 441 23256
-0 0 0 6 4780900 0 21 573 0
-0 0 0 7 4879260 0 21 603 0
-0 0 0 9 4977250 0 21 668 0
-0 0 0 10 5074780 0 21 588 0
-0 0 0 7 5172260 0 21 584 0
-0 0 0 6 5269930 0 21 506 0
-0 0 0 8 5367160 0 21 487 0
-0 0 0 5 5464120 0 21 462 0
-0 0 0 6 5561400 0 21 449 0
-0 0 0 9 5658670 0 21 424 0
-0 0 0 8 5756200 0 21 379 0
-0 0 0 7 5852760 0 21 439 0
-0 0 0 6 5950390 0 21 437 0
-12.477511 12.30641 1.5991939 719 6047050 26225 21 1071 26225
-12.298233 12.430986 1.5957271 686 6144320 14919 21 889 14919
-12.107403 12.542272 1.5909268 734 6241900 28385 21 988 28385
-11.905456 12.639875 1.5847931 725 6339740 23850 21 992 23850
-11.717097 12.74982 1.5805261 765 6437320 34696 21 1004 34696
-11.538477 12.868916 1.5776815 791 6534900 41615 21 1032 41615
-11.338372 12.962311 1.5720812 778 6632790 36161 21 1086 36161
-11.14677 13.063348 1.5677253 725 6730520 19153 21 1063 19153
-10.969057 13.179248 1.5654141 792 6829030 38262 21 1099 38262
-10.760675 13.25641 1.5589248 772 6926030 30559 21 1038 30559
-10.58977 13.37809 1.5578581 783 7024390 33334 21 1091 33334
-10.378551 13.447109 1.5511022 641 7122540 55551 21 1309 55551
-7.6909552 10.221901 1.1767682 609 7220880 34951 21 1359 34951
-7.5720062 10.32515 1.177835 357 7318920 59116 21 1184 59116
-7.8773532 11.022634 1.244239 438 7417170 15592 21 1442 15592
-7.6151419 10.937006 1.2245045 559 7514390 34626 21 752 34626
-9.4477749 13.930452 1.5373235 437 7612940 59300 21 1022 59300
-7.2176385 10.928606 1.2039698 475 7711230 16662 21 766 16662
-9.1213741 14.186603 1.5403459 748 7809320 17996 21 1106 17996
-8.9323301 14.27467 1.5379457 731 7906350 12552 21 1066 12552
-8.772542 14.409582 1.5407015 754 8003930 19982 21 1038 19982
-8.5879498 14.504151 1.539457 503 8101970 13019 21 562 13019
-8.3988791 14.590319 1.5375901 505 8199350 13457 21 592 13457
-8.2123928 14.680118 1.5363457 486 8296570 7815 21 699 7815
-8.0340042 14.784166 1.5367901 466 8393900 2096 21 964 2096
-7.8436084 14.865787 1.53519 591 8492090 37422 21 1195 37422
-7.6728492 14.984858 1.5375901 618 8589250 45653 21 1313 45653
-7.4990177 15.099297 1.5397236 683 8685860 64773 21 1430 64773
-7.2392759 15.036721 1.5245228 211 8783390 59332 21 997 59332
-20.751278 44.49036 4.4164319 26 8881530 63193 21 920 63193
-20.120125 44.556473 4.3982978 25 8978410 62107 21 947 62107
-19.526375 44.695972 4.3881636 38 9076130 26224 21 891 26224
-4.1830993 9.9051428 0.99471271 46 9174430 5398 21 770 5398
-4.0642428 9.9631081 0.99542385 391 9272520 45652 21 448 45652
-17.549828 44.576229 4.310648 47 9370160 44394 21 977 44394
-16.914175 44.558228 4.288691 45 9468760 38809 21 971 38809
-16.323008 44.644566 4.2774901 36 9566650 18595 21 1044 18595
-15.694593 44.616009 4.2561555 32 9664640 7438 21 1110 7438
-15.098697 44.665596 4.2429991 35 9761450 13979 21 1096 13979
-14.491044 44.667507 4.2261095 51 9858930 48522 21 1116 48522
-13.897752 44.700253 4.2128639 44 9957220 32013 21 1133 32013
-13.289371 44.669811 4.1944628 46 10054500 35379 21 1026 35379
-12.698814 44.683899 4.1809511 40 10151880 22355 21 990 22355
-12.077878 44.571991 4.1565051 45 10249870 32520 21 1081 32520
-11.506873 44.627151 4.1482377 49 10347130 40505 21 1091 40505
-10.942494 44.700176 4.142282 47 10443440 35615 21 1108 35615
-10.370635 44.734062 4.1333923 35 10541330 10628 21 1056 10628
-9.7738199 44.642925 4.1137471 42 10638340 24010 21 975 24010
-9.2065477 44.668777 4.1054797 41 10735670 22082 21 946 22082
-8.6401148 44.687447 4.0972128 45 10833140 28622 21 796 28622
-9.0074072 49.862518 4.5572405 16 10930770 42385 21 302 42385
-8.4898949 50.535091 4.6084437 48 11027750 63638 21 253 63638
-0 0 0 7 11125370 0 21 363 0
-0 0 0 5 11223770 0 21 364 0
-3.5122192 26.943001 2.4600463 80 11321660 59792 21 651 59792
-2.8049588 23.791958 2.1731844 39 11419190 22907 21 853 22907
-2.3434184 22.218912 2.0290868 99 11517130 50264 21 703 50264
-2.0977232 22.537573 2.0552216 30 11614910 15704 21 644 15704
-3.4045875 42.179577 3.8117731 53 11712450 30515 21 897 30515
-2.8384769 41.512642 3.7486579 71 11810030 60082 21 1039 60082
-1.4718136 26.257208 2.382175 60 11907550 42491 21 812 42491
-1.8569957 42.441494 3.8265295 64 12006060 51778 21 750 51778
-0.79064351 25.130585 2.2790575 67 12103220 43094 21 619 43094
-0.48192552 25.124453 2.277813 89 12201680 57205 21 706 57205
-0.28622699 41.417339 3.7315903 69 12299920 54499 21 643 54499
0.12476988 23.255186 2.1106029 67 12397500 37040 21 467 37040
0.37554985 21.290009 1.9354811 65 12494730 29815 21 779 29815
0.63431126 21.201162 1.9281029 40 12592550 18221 21 901 18221
1.0207466 24.185209 2.1954968 84 12690450 49907 21 634 49907
1.1010348 20.199562 1.840542 60 12788690 24905 21 763 24905
1.2841562 19.216545 1.7539589 46 12886530 17288 21 664 17288
1.8291378 23.106541 2.1037579 64 12984410 34924 21 750 34924
1.8236271 19.925148 1.8208075 86 13082200 34882 21 641 34882
2.8082204 27.025448 2.4600463 97 13179430 6946 21 760 6946
1.2871051 11.063064 1.0291148 195 13277110 24467 21 731 24467
1.5241624 11.833779 1.0999635 36 13375350 5268 21 609 5268
1.584831 11.216518 1.0460936 394 13473540 51024 21 522 51024
1.6360437 10.635081 0.99542385 120 13570470 14073 21 393 14073
1.8529176 11.133963 1.042449 240 13667780 30945 21 582 30945
1.9881802 11.103523 1.0418267 224 13765320 28774 21 652 28774
2.1119089 11.013726 1.0359597 373 13863510 47377 21 607 47377
3.8632395 18.891346 1.7560035 83 13961090 31381 21 837 31381
2.3599894 10.859301 1.0268924 161 14058470 20140 21 600 20140
11.062283 48.056145 4.4361663 28 14155430 3820 21 542 3820
4.5752568 18.815714 1.7632928 35 14252600 13291 21 442 13291
11.817839 46.128925 4.2849574 29 14350080 2028 21 857 2028
4.8825636 18.129354 1.7107563 55 14447470 19702 21 755 19702
5.2471089 18.572256 1.7575147 113 14545400 42597 21 869 42597
5.3743234 18.167398 1.7259572 78 14642730 28566 21 812 28566
5.3961916 17.451094 1.6653312 109 14740700 36670 21 1033 36670
6.7882318 21.034899 2.0077522 87 14838350 43327 21 809 43327
6.9442511 20.647907 1.979306 138 14936270 939 21 926 939
7.1131988 20.321405 1.9566379 120 15034120 56456 21 712 56456
7.4025664 20.343971 1.9672164 200 15131790 29117 21 765 29117
7.5682282 20.030771 1.9461484 213 15229440 33083 21 649 33083
7.797112 19.894659 1.9421481 171 15327580 13523 21 718 13523
7.8307776 19.280689 1.8923674 208 15425460 25465 21 869 25465
8.335125 19.821268 1.9541489 110 15523300 51311 21 796 51311
8.5002556 19.539387 1.9368144 160 15621090 7947 21 742 7947
9.2549314 20.580025 2.0489991 88 15719020 45297 21 662 45297
11.497485 24.750319 2.4707136 76 15816440 57093 21 570 57093
10.142661 21.150513 2.1285594 155 15914190 20958 21 466 20958
10.638622 21.503868 2.1762958 108 16012280 63099 21 489 63099
10.989509 21.543829 2.1935413 169 16110260 34236 21 435 34236
10.964795 20.858957 2.1382489 149 16207530 18348 21 593 18348
10.93493 20.196415 2.0848234 157 16304460 18437 21 583 18437
10.895832 19.547396 2.0323758 213 16402040 42110 21 665 42110
11.020409 19.212631 2.0118413 195 16499610 30984 21 555 30984
11.191067 18.966999 2.0005517 168 16597340 16628 21 569 16628
12.560611 20.703415 2.1962969 125 16694570 8432 21 676 8432
12.70621 20.375303 2.1781626 217 16792930 60711 21 783 60711
12.916598 20.157461 2.171762 147 16890090 19746 21 852 19746
13.212276 20.072315 2.1797626 179 16987930 38951 21 863 38951
13.443096 19.887215 2.1774514 193 17085970 47058 21 709 47058
21.256578 30.62944 3.3625011 39 17183450 55014 21 891 55014
0 0 0 19 17280360 0 21 843 0
26.349773 36.04657 4.0200524 32 17378300 65091 21 531 65091
26.799698 35.73325 4.0214748 43 17476440 22497 21 602 22497
27.185163 35.335373 4.0140076 36 17574540 7298 21 420 7298
27.489019 34.83725 3.9956064 34 17672310 3544 21 599 3544
19.771292 24.433695 2.8402472 99 17770260 33599 21 858 33599
20.015581 24.124073 2.8326912 71 17868300 5523 21 836 5523
19.865465 23.353895 2.7714431 103 17965530 32279 21 780 32279
19.913586 22.836597 2.7392633 147 18063350 4971 21 805 4971
20.174404 22.570457 2.7368631 86 18161600 14614 21 949 14614
21.327919 23.279612 2.8528702 84 18259440 19439 21 741 19439
21.801533 23.217991 2.8775828 53 18357280 54220 21 688 54220
21.702873 22.551821 2.8284242 90 18455680 23749 21 758 23749
21.863979 22.168201 2.8139346 98 18553250 30561 21 883 30561
21.812908 21.580191 2.7735765 101 18651240 30587 21 1004 30587
26.668858 25.744526 3.3433001 39 18748970 54268 21 670 54268
12.134517 11.429449 1.5228337 114 18846760 32069 21 635 32069
12.118384 11.136793 1.5039881 218 18945010 59600 21 544 59600
12.122876 10.86955 1.4882538 49 19042850 13164 21 661 13164
25.674868 22.458559 3.0794618 101 19139760 53483 21 982 53483
26.809265 22.876265 3.1804457 114 19237550 12600 21 950 12600
26.777922 22.287489 3.1444435 112 19335030 7055 21 1049 7055
28.983488 23.527205 3.3667681 56 19432090 14399 21 1278 14399
40.605 32.142487 4.65698 69 19530650 56695 21 1445 56695
41.644524 32.142033 4.730051 55 19627660 23964 21 1431 23964
42.767258 32.178925 4.8117447 37 19724840 44115 21 694 44115
43.835213 32.147659 4.8865938 43 19822060 62809 21 681 62809
36.035271 25.753298 3.9880505 57 19920560 48400 21 1196 48400
46.192638 32.163528 5.0586042 45 20018400 14192 21 1096 14192
0 0 0 12 20116080 0 21 430 0
15.375151 10.154399 1.6795543 87 20213550 29950 21 632 29950
0 0 0 0 20311740 0 21 643 0
0 0 0 0 20408670 0 21 495 0
0 0 0 9 20506860 0 21 824 0
31.375443 18.577778 3.2893412 28 20604540 38330 21 622 38330
31.123693 17.916553 3.2401826 40 20702170 52210 21 903 52210
31.365553 17.546885 3.2426717 31 20799240 41341 21 835 41341
31.138311 16.921436 3.1979578 52 20897240 1254 21 604 1254
30.906677 16.307497 3.1538663 47 20994860 58479 21 863 58479
21.822083 11.173893 2.2231431 176 21091870 41395 21 865 41395
22.41341 11.131665 2.268568 129 21189970 16310 21 617 16310
30.894552 14.874117 3.0952849 37 21288010 44653 21 613 44653
22.320578 10.410688 2.2331882 149 21385340 25849 21 754 25849
22.204277 10.026546 2.2094533 49 21482050 29783 21 832 29783
31.657492 13.830173 3.1183085 32 21579940 38507 21 575 38507
30.986172 13.086449 3.0370591 32 21677720 36771 21 548 36771
30.315327 12.366982 2.9571433 54 21774890 58877 21 635 58877
31.385117 12.356368 3.0454152 113 21871750 64172 21 679 64172
31.194494 11.841271 3.0129688 94 21969500 40503 21 750 40503
31.903418 11.664506 3.0667498 58 22067270 2210 21 778 2210
30.364151 10.681139 2.9078069 63 22165110 775 21 980 775
31.407274 10.616804 2.9939454 25 22261970 28101 21 534 28101
38.916611 12.625309 3.6865208 33 22359600 56909 21 492 56909
39.0163 12.130527 3.6816318 46 22456780 12613 21 410 12613
31.708029 9.4331455 2.987545 64 22553640 5346 21 662 5346
38.93338 11.064533 3.6474075 38 22650600 63548 21 290 63548
27.707645 7.5079842 2.5971212 28 22748190 23401 21 441 23401
28.233644 7.2798133 2.6373014 43 22845670 37376 21 505 37376
26.928659 6.5919824 2.5093827 60 22942680 46554 21 566 46554
27.02499 6.265079 2.5109828 48 23040570 37291 21 683 37291
28.038778 6.1385388 2.5967658 28 23137850 23996 21 588 23996
27.343273 5.6355548 2.5267169 48 23235940 38128 21 515 38128
26.986929 5.2177134 2.4882257 58 23334380 44831 21 476 44831
26.550016 4.7960219 2.4429786 37 23431190 27468 21 641 27468
28.033134 4.7094698 2.5720532 71 23528270 58262 21 515 58262
27.90575 4.3366547 2.5555189 68 23626760 54703 21 571 54703
28.476503 4.0681205 2.602366 76 23725000 63856 21 742 63856
34.560017 4.5052147 3.1455991 28 23822230 35210 21 604 35210
33.306969 3.9268196 3.0282586 29 23919260 33213 21 542 33213
35.183178 3.7108791 3.1925354 29 24017080 37643 21 710 37643
38.857868 3.6169188 3.5180662 94 24113790 14746 21 578 14746
33.658276 2.7167344 3.0487933 27 24212040 31314 21 663 31314
33.630451 2.2994819 3.0435486 33 24309460 38059 21 780 38059
38.884113 2.1797016 3.5108657 42 24407460 65303 21 609 65303
34.686768 1.5176543 3.1337762 31 24504930 38314 21 630 38314
35.358845 1.1125264 3.1923575 46 24601140 58260 21 555 58260
38.855339 0.74542218 3.5034876 98 24699290 19047 21 621 19047
38.804787 0.26815864 3.4984205 144 24797160 23263 21 478 23263
38.841011 -0.20824805 3.5016208 141 24894690 18218 21 315 18218
38.833542 -0.68483621 3.5014429 197 24991300 38295 21 279 38295
38.908829 -1.1639225 3.5091767 145 25089240 25549 21 294 25549
0 -0 0 10 25186420 0 21 856 0
67.83725 -3.6971562 6.0984011 30 25283950 10227 21 994 10227
67.26899 -4.49475 6.0520868 21 25380810 30789 21 1034 30789
67.505653 -5.3434048 6.0786662 26 25479050 55123 21 1140 55123
0 -0 0 8 25576370 0 21 770 0
19.243439 -1.999652 1.7617816 103 25673800 38896 21 681 38896
19.259995 -2.2405968 1.765604 268 25771030 36384 21 468 36384
19.257721 -2.4802127 1.7680042 171 25868550 65155 21 524 65155
17.16655 -2.4254222 1.5823929 184 25966650 55995 21 597 55995
19.321003 -2.9720619 1.7797383 158 26064160 61010 21 417 61010
20.046503 -3.3359714 1.8488091 88 26162070 36904 21 501 36904
17.36272 -3.10882 1.6093279 110 26259130 34519 21 453 34519
17.016102 -3.2627602 1.5814151 285 26356920 20881 21 395 20881
17.052849 -3.4872921 1.5885266 269 26455110 16643 21 449 16643
17.732925 -3.8536558 1.6546639 204 26552890 2230 21 328 2230
18.053148 -4.1558814 1.6884438 166 26649550 57596 21 289 57596
18.294046 -4.4484138 1.7153788 223 26747290 14352 21 278 14352
18.165714 -4.6540356 1.7087117 291 26845890 37903 21 252 37903
18.027407 -4.8551083 1.7013335 150 26943110 52961 21 377 52961
17.6099 -4.9752312 1.6682647 196 27040090 693 21 323 693
17.511225 -5.1802206 1.6648868 105 27137910 35319 21 338 35319
16.761192 -5.1828704 1.6008829 160 27235190 49729 21 314 49729
16.872639 -5.4450612 1.6174172 140 27331080 44439 21 317 44439
0 -0 0 225 27428410 0 21 200 0
16.439672 -5.7545004 1.5895933 257 27525570 13317 21 247 13317
17.850451 -6.4952765 1.7304019 72 27622600 26394 21 280 26394
16.763103 -6.3336425 1.6343961 59 27719040 19292 21 276 19292
21.257887 -8.3313723 2.0728228 91 27817550 47852 21 338 47852
31.523956 -12.803185 3.071728 37 27915590 43219 21 111 43219
31.494846 -13.243895 3.0843511 27 28012350 31946 21 98 31946
18.911907 -8.2272902 1.8757441 373 28110030 28971 21 198 28971
18.860394 -8.4816256 1.8807222 440 28208070 58908 21 149 58908
18.828964 -8.7468424 1.8880115 341 28304930 17265 21 183 17265
26.259897 -12.592793 2.634279 80 28402680 3592 21 247 3592
16.728474 -8.2761412 1.7008001 222 28500720 12640 21 271 12640
16.271629 -8.3002186 1.6653312 287 28598500 31309 21 236 31309
15.762986 -8.286088 1.62444 317 28696240 36072 21 248 36072
15.312384 -8.2906313 1.5891489 407 28793720 59115 21 250 59115
14.885845 -8.2975149 1.5560802 331 28891240 31606 21 254 31606
14.496917 -8.3155251 1.5266562 474 28989480 2517 21 289 2517
7.1672201 -4.2290177 0.77781063 470 29086610 32835 21 189 32835
6.9129601 -4.1942091 0.75674266 680 29183720 44848 21 289 44848
6.9497132 -4.3340659 0.76607656 470 29281610 31817 21 180 31817
6.2519269 -4.0063162 0.69780576 719 29378890 39974 21 205 39974
6.3021307 -4.1484509 0.70847309 525 29476720 30130 21 223 30130
6.7161622 -4.5400739 0.75860947 250 29574710 16623 21 244 16623
6.0707703 -4.213274 0.69460559 594 29671890 32741 21 252 32741
5.9845366 -4.2631831 0.69087201 388 29769610 21161 21 490 21161
5.6543517 -4.133513 0.66020346 509 29866890 25202 21 503 25202
6.5044255 -4.8784943 0.7607429 344 29965180 22984 21 355 22984
10.915483 -8.3979816 1.2642403 318 30062880 60841 21 320 60841
4.8720493 -3.8446217 0.58899915 274 30159990 10649 21 430 10649
4.9847836 -4.033814 0.60740024 750 30257780 31101 21 213 31101
4.8038263 -3.9859257 0.59219933 553 30355410 21737 21 296 21737
9.8802767 -8.4045973 1.1927692 255 30452930 43364 21 267 43364
4.9207664 -4.2911468 0.61780089 331 30550770 14246 21 399 14246
